ply
format ascii 1.0
element vertex 836
property float x
property float y
property float z
end_header
1.1459494829177856 -1.0679785013198853 0.6045286059379578
1.1458851099014282 -1.067926287651062 0.6044948697090149
1.1458896398544312 -1.0679301023483276 0.6044972538948059
1.1458868980407715 -1.0679280757904053 0.6044958829879761
1.1458795070648193 -1.0679219961166382 0.6044920086860657
1.1459218263626099 -1.067956566810608 0.6045142412185669
1.1458789110183716 -1.067921757698059 0.6044918298721313
1.1459134817123413 -1.067949891090393 0.6045099496841431
1.1459134817123413 -1.067949891090393 0.6045099496841431
1.1459215879440308 -1.0679566860198975 0.6045143604278564
1.145904541015625 -1.0679428577423096 0.6045054197311401
1.145900845527649 -1.067940592765808 0.6045039296150208
1.1459016799926758 -1.067941427230835 0.6045045256614685
1.1459167003631592 -1.0679537057876587 0.6045124530792236
1.1459167003631592 -1.0679537057876587 0.6045124530792236
1.1458696126937866 -1.0679155588150024 0.6044877171516418
1.1458969116210938 -1.0679378509521484 0.6045021414756775
1.145920991897583 -1.0679572820663452 0.6045148372650146
1.1458927392959595 -1.067934513092041 0.6044999957084656
1.1459169387817383 -1.067954421043396 0.6045129299163818
1.1458959579467773 -1.0679373741149902 0.6045019030570984
1.145889163017273 -1.067932367324829 0.6044986844062805
1.1458885669708252 -1.0679322481155396 0.6044985055923462
1.1458805799484253 -1.0679256916046143 0.6044943332672119
1.1458550691604614 -1.0679051876068115 0.6044809818267822
1.1458735466003418 -1.0679203271865845 0.6044908165931702
1.145885944366455 -1.0679304599761963 0.6044973731040955
1.1458826065063477 -1.0679278373718262 0.6044957041740417
1.1458845138549805 -1.0679293870925903 0.6044966578483582
1.1458688974380493 -1.0679168701171875 0.6044886112213135
1.1458686590194702 -1.067916750907898 0.6044885516166687
1.1458715200424194 -1.067919135093689 0.6044899821281433
1.1458629369735718 -1.0679124593734741 0.6044857501983643
1.1458699703216553 -1.0679181814193726 0.6044894456863403
1.1458547115325928 -1.067906141281128 0.6044816374778748
1.145864725112915 -1.067914366722107 0.6044870615005493
1.1458550691604614 -1.0679067373275757 0.6044819951057434
1.1458549499511719 -1.067907691001892 0.6044826507568359
1.1458569765090942 -1.067909598350525 0.6044837832450867
1.145837426185608 -1.0678941011428833 0.604473888874054
1.1458337306976318 -1.0678914785385132 0.6044721603393555
1.1458461284637451 -1.067902684211731 0.6044794321060181
1.1458090543746948 -1.067873477935791 0.6044604778289795
1.1457946300506592 -1.0678637027740479 0.6044541001319885
1.1457843780517578 -1.067855715751648 0.6044489145278931
1.1457667350769043 -1.0678417682647705 0.6044397354125977
1.1457757949829102 -1.0678497552871704 0.6044451594352722
1.1457669734954834 -1.067842960357666 0.6044407486915588
1.1457642316818237 -1.0678411722183228 0.6044395565986633
1.1457784175872803 -1.0678528547286987 0.6044471263885498
1.145759105682373 -1.0678372383117676 0.6044371128082275
-27.555904388427734 25.394392013549805 -16.344097137451172
-27.555904388427734 25.394392013549805 -16.344097137451172
-27.556772232055664 25.39518165588379 -16.34457778930664
-27.556772232055664 25.39518165588379 -16.34457778930664
-27.55756378173828 25.3960018157959 -16.344947814941406
-27.55756378173828 25.3960018157959 -16.344947814941406
-27.559919357299805 25.39778709411621 -16.346118927001953
-27.559818267822266 25.397783279418945 -16.34607696533203
-27.5631046295166 25.400962829589844 -16.3477783203125
-27.567861557006836 25.404272079467773 -16.350112915039062
-27.568071365356445 25.40440559387207 -16.350204467773438
-27.568071365356445 25.40440559387207 -16.350204467773438
-27.570154190063477 25.40599822998047 -16.35125732421875
-27.571176528930664 25.40726661682129 -16.35179328918457
-27.567867279052734 25.405498504638672 -16.350271224975586
-27.56797981262207 25.405601501464844 -16.3503360748291
-27.574121475219727 25.409793853759766 -16.353273391723633
-27.57501792907715 25.411161422729492 -16.35394287109375
-27.569320678710938 25.40715217590332 -16.351085662841797
-27.569372177124023 25.407196044921875 -16.351112365722656
-27.576066970825195 25.41175079345703 -16.35432243347168
-27.57773208618164 25.412944793701172 -16.3551082611084
-27.57773208618164 25.412944793701172 -16.3551082611084
-27.5771541595459 25.41267204284668 -16.35483741760254
-27.575151443481445 25.41154670715332 -16.353946685791016
-27.575511932373047 25.411911010742188 -16.35413932800293
-27.57599639892578 25.41231346130371 -16.354381561279297
-27.576570510864258 25.41283416748047 -16.354673385620117
-27.580791473388672 25.4160213470459 -16.356698989868164
-27.58059310913086 25.416122436523438 -16.35662078857422
-27.583850860595703 25.418872833251953 -16.358259201049805
-27.584224700927734 25.419170379638672 -16.358457565307617
-27.577774047851562 25.414932250976562 -16.35533905029297
-27.584566116333008 25.41970443725586 -16.358638763427734
-27.594470977783203 25.427961349487305 -16.36359977722168
-27.5921688079834 25.42681884765625 -16.362520217895508
-27.59715461730957 25.430225372314453 -16.364917755126953
-27.59857940673828 25.431385040283203 -16.36564064025879
-27.59880256652832 25.43165397644043 -16.365774154663086
-27.60032081604004 25.432836532592773 -16.366525650024414
-27.596900939941406 25.430665969848633 -16.364887237548828
-27.59187126159668 25.42706298828125 -16.362369537353516
-27.59757423400879 25.431100845336914 -16.365196228027344
-27.59757423400879 25.431100845336914 -16.365196228027344
-27.598051071166992 25.431474685668945 -16.365440368652344
-27.599882125854492 25.43269157409668 -16.366313934326172
-27.592613220214844 25.427749633789062 -16.362754821777344
-27.59799575805664 25.431777954101562 -16.365449905395508
-27.60174560546875 25.434282302856445 -16.367246627807617
-27.596620559692383 25.430870056152344 -16.364765167236328
-27.598955154418945 25.43257713317871 -16.365930557250977
-27.60035514831543 25.4335880279541 -16.366605758666992
-27.594341278076172 25.429489135742188 -16.36368751525879
-27.600448608398438 25.433712005615234 -16.366657257080078
-27.60254669189453 25.435457229614258 -16.367708206176758
-27.601688385009766 25.434892654418945 -16.367290496826172
-27.60611915588379 25.437847137451172 -16.36942481994629
-27.606002807617188 25.437763214111328 -16.36936378479004
-27.601102828979492 25.434566497802734 -16.36701202392578
-27.6025333404541 25.435548782348633 -16.367712020874023
-27.60194969177246 25.435190200805664 -16.367420196533203
-27.605751037597656 25.43769645690918 -16.369243621826172
-27.607059478759766 25.438615798950195 -16.369882583618164
-27.6049861907959 25.437217712402344 -16.36884880065918
-27.606826782226562 25.438528060913086 -16.3697566986084
-27.605438232421875 25.437576293945312 -16.36907958984375
-27.607494354248047 25.439054489135742 -16.370088577270508
-27.605695724487305 25.437896728515625 -16.369199752807617
-27.602210998535156 25.435970306396484 -16.367599487304688
-27.6060733795166 25.43863296508789 -16.369487762451172
-27.599559783935547 25.434263229370117 -16.366222381591797
-27.60700035095215 25.439863204956055 -16.36998748779297
-27.610002517700195 25.442094802856445 -16.371448516845703
-27.60820198059082 25.440969467163086 -16.370586395263672
-27.609838485717773 25.44206428527832 -16.37137222290039
-27.611392974853516 25.443147659301758 -16.372112274169922
-27.611392974853516 25.443147659301758 -16.372112274169922
-27.610517501831055 25.4426326751709 -16.37171173095703
-27.60959815979004 25.442171096801758 -16.371288299560547
-27.611698150634766 25.443632125854492 -16.372314453125
-27.610658645629883 25.443115234375 -16.371824264526367
-27.612531661987305 25.444847106933594 -16.372800827026367
-27.60759735107422 25.441661834716797 -16.370241165161133
-27.616865158081055 25.448972702026367 -16.375051498413086
-27.61005973815918 25.44471549987793 -16.37165069580078
-27.617908477783203 25.451744079589844 -16.37550926208496
-27.61627960205078 25.450664520263672 -16.374710083007812
-27.62112808227539 25.454578399658203 -16.377166748046875
-27.619245529174805 25.453351974487305 -16.376249313354492
-27.622297286987305 25.4558162689209 -16.377769470214844
-27.62384033203125 25.4569149017334 -16.378517150878906
-27.621021270751953 25.45508575439453 -16.37716293334961
-27.625696182250977 25.458942413330078 -16.379467010498047
-27.62619400024414 25.459327697753906 -16.379711151123047
-27.62619400024414 25.459327697753906 -16.379711151123047
-27.627056121826172 25.460281372070312 -16.380077362060547
-27.630023956298828 25.462570190429688 -16.380971908569336
-4.771536350250244 3.3417537212371826 -3.509110689163208
-4.779592990875244 3.347219228744507 -3.5133535861968994
-4.779561519622803 3.3472161293029785 -3.513338327407837
-4.779722690582275 3.34733510017395 -3.513418197631836
-4.780094146728516 3.34757137298584 -3.513613700866699
-4.7848310470581055 3.35123348236084 -3.5160186290740967
-4.787358283996582 3.3532471656799316 -3.51729679107666
-4.787245750427246 3.353163003921509 -3.517223358154297
-4.787167549133301 3.353104829788208 -3.5171728134155273
-4.787075996398926 3.3530356884002686 -3.5171127319335938
-4.7869768142700195 3.352962017059326 -3.5170483589172363
-1.4517958164215088 0.33074724674224854 -0.779042661190033
-1.4508103132247925 0.3304656744003296 -0.7785561680793762
-1.4518040418624878 0.3307206332683563 -0.7789390087127686
-1.4518077373504639 0.330695241689682 -0.7788227796554565
-1.4517544507980347 0.33069851994514465 -0.7787370681762695
-1.4514566659927368 0.3305797576904297 -0.7785302400588989
-1.451814889907837 0.33065950870513916 -0.7786769270896912
-1.4517525434494019 0.33067548274993896 -0.778658926486969
-1.4518178701400757 0.3306291997432709 -0.778525173664093
-1.4518178701400757 0.3306291997432709 -0.778525173664093
-1.4518182277679443 0.3306241035461426 -0.7785190939903259
-1.4514044523239136 0.330486536026001 -0.7783025503158569
1.775315284729004 6.028631210327148 -1.8512015342712402
1.7752070426940918 6.028636455535889 -1.8505568504333496
1.7752494812011719 6.028961181640625 -1.8506793975830078
1.775272011756897 6.029082298278809 -1.850699543952942
1.7753363847732544 6.02946138381958 -1.8509589433670044
1.7751891613006592 6.029207229614258 -1.8503814935684204
1.7753536701202393 6.029737949371338 -1.8509397506713867
1.7752219438552856 6.029448509216309 -1.850434422492981
1.7754007577896118 6.030116081237793 -1.850982427597046
1.7754186391830444 6.030274391174316 -1.851212501525879
1.7754210233688354 6.030320644378662 -1.8512258529663086
1.7754504680633545 6.030657768249512 -1.8513085842132568
1.7754380702972412 6.03076171875 -1.8512883186340332
1.7751041650772095 6.02970027923584 -1.8498554229736328
1.7754507064819336 6.0308308601379395 -1.8512612581253052
1.775363564491272 6.030526161193848 -1.850860595703125
1.7753807306289673 6.030864238739014 -1.8508719205856323
1.7754027843475342 6.031085014343262 -1.8510602712631226
1.7752844095230103 6.030726432800293 -1.8505008220672607
1.775399923324585 6.031164646148682 -1.8510791063308716
1.7754162549972534 6.031248092651367 -1.8511611223220825
1.7753041982650757 6.030796051025391 -1.8504706621170044
1.7754051685333252 6.031242847442627 -1.8511053323745728
1.7754069566726685 6.031270980834961 -1.851037621498108
1.7754080295562744 6.031307220458984 -1.8511134386062622
1.7754096984863281 6.031404495239258 -1.851157784461975
1.7753568887710571 6.031377792358398 -1.8510313034057617
1.7754954099655151 6.0322489738464355 -1.8516521453857422
1.775475263595581 6.0323662757873535 -1.8516089916229248
1.7754937410354614 6.033492088317871 -1.852596402168274
1.7754796743392944 6.033456802368164 -1.852552056312561
1.775473713874817 6.0334792137146 -1.8525363206863403
1.7754716873168945 6.0334858894348145 -1.8524737358093262
1.7754751443862915 6.033576011657715 -1.852498173713684
-1.0378444194793701 -0.848708987236023 1.9306519031524658
-1.0378727912902832 -0.8490809798240662 1.9309298992156982
-1.0378738641738892 -0.8490897417068481 1.9309351444244385
-1.0378460884094238 -0.8487036824226379 1.9306424856185913
-1.0378460884094238 -0.8487036824226379 1.9306424856185913
-1.0378777980804443 -0.8491706252098083 1.9309885501861572
-1.037879467010498 -0.8491930365562439 1.9310051202774048
-1.037833333015442 -0.8486272692680359 1.9305577278137207
-1.0378477573394775 -0.8490167260169983 1.9307975769042969
-1.0378636121749878 -0.8493273854255676 1.9310137033462524
-1.037839651107788 -0.8489746451377869 1.9307429790496826
-1.0378586053848267 -0.8492415547370911 1.9309414625167847
-1.0378328561782837 -0.8489296436309814 1.930699348449707
-1.037835717201233 -0.848988950252533 1.9307390451431274
-1.037850022315979 -0.8492235541343689 1.930896520614624
-1.0378557443618774 -0.8493162989616394 1.9309663772583008
-1.037858486175537 -0.8493968844413757 1.9310107231140137
-1.037843108177185 -0.8494184017181396 1.9309629201889038
-1.0378656387329102 -0.8497760891914368 1.9312429428100586
-1.0378073453903198 -0.8492301106452942 1.9307416677474976
-1.0378234386444092 -0.8494504690170288 1.9309065341949463
-1.0378233194351196 -0.8494467735290527 1.930902361869812
-1.0378543138504028 -0.8499463200569153 1.931255578994751
-1.037866473197937 -0.8501724600791931 1.9314255714416504
-1.0378667116165161 -0.8501763939857483 1.9314266443252563
-1.03782057762146 -0.8495176434516907 1.9309210777282715
-1.0378332138061523 -0.8496923446655273 1.9310499429702759
-1.0378270149230957 -0.8496876955032349 1.9310343265533447
-1.0378286838531494 -0.8497015833854675 1.9310417175292969
-1.037813663482666 -0.8495520353317261 1.9309132099151611
-1.0378332138061523 -0.8498210310935974 1.9311167001724243
-1.0378241539001465 -0.8497000932693481 1.9310216903686523
-1.0378336906433105 -0.8498565554618835 1.931137204170227
-1.0378316640853882 -0.849873960018158 1.9311342239379883
-1.0379202365875244 -0.851283073425293 1.9321436882019043
-1.0378875732421875 -0.8508647680282593 1.931819200515747
-1.0378249883651733 -0.8501183986663818 1.9312442541122437
-1.0378581285476685 -0.8505508899688721 1.9315613508224487
-1.0378361940383911 -0.8502156138420105 1.931298017501831
-1.0378553867340088 -0.8505668640136719 1.9315598011016846
-1.0378347635269165 -0.8503316044807434 1.9313703775405884
-1.0378347635269165 -0.8503316044807434 1.9313703775405884
-1.037865161895752 -0.8507692217826843 1.9317008256912231
-1.0378559827804565 -0.850602388381958 1.9315741062164307
-1.037918210029602 -0.8516203165054321 1.932297706604004
-1.037873387336731 -0.8511574268341064 1.9319195747375488
-0.8235257267951965 0.9934747219085693 0.9406217336654663
-0.8235236406326294 0.9934797883033752 0.940619945526123
-0.8235290050506592 0.9933694005012512 0.9406747221946716
-0.823520302772522 0.993393063545227 0.9406669735908508
-0.8235318064689636 0.9933359622955322 0.9406903982162476
-0.8235326409339905 0.9933209419250488 0.9406975507736206
-0.8235326409339905 0.9933209419250488 0.9406975507736206
-0.8235571980476379 0.99317866563797 0.940760612487793
-0.8235349655151367 0.9932436347007751 0.9407352805137634
-0.823552131652832 0.9931517243385315 0.9407727122306824
-0.8235355019569397 0.9931952357292175 0.9407599568367004
-0.8235318660736084 0.9932084083557129 0.940754771232605
-0.823535680770874 0.9931811094284058 0.9407666921615601
-0.823548436164856 0.9931082129478455 0.9407985806465149
-0.8235602974891663 0.9930621981620789 0.9408139586448669
-0.8235516548156738 0.9930839538574219 0.94080650806427
-0.823578953742981 0.9930039644241333 0.9408242702484131
-0.8235501646995544 0.9930772185325623 0.9408140778541565
-0.8235523700714111 0.9930757880210876 0.9408106803894043
-0.8235811591148376 0.9929846525192261 0.9408334493637085
-0.8235791921615601 0.992992103099823 0.9408305883407593
-0.8235791921615601 0.992992103099823 0.9408305883407593
-0.8235476016998291 0.9930830597877502 0.9408096671104431
-0.8235833644866943 0.9929680824279785 0.9408409595489502
-0.8235552310943604 0.9930374026298523 0.9408275485038757
-0.8235602974891663 0.9930171966552734 0.9408355355262756
-0.8235384821891785 0.9930874705314636 0.9408118724822998
-0.8235508799552917 0.9930278658866882 0.9408342242240906
-0.8235570788383484 0.9929952025413513 0.9408475160598755
-0.8235542178153992 0.9929970502853394 0.9408478140830994
-0.8235489726066589 0.9930189251899719 0.9408376216888428
-0.8235536813735962 0.9929934144020081 0.9408503174781799
-0.8235629796981812 0.9929237961769104 0.9408805966377258
-0.8235543370246887 0.9929350018501282 0.9408774971961975
-0.8235428929328918 0.9928898215293884 0.9409047961235046
-0.823543131351471 0.9928485155105591 0.9409234523773193
-0.8235469460487366 0.9928314685821533 0.9409305453300476
-0.8235568404197693 0.9927669763565063 0.9409518241882324
-0.16377411782741547 2.8218722343444824 1.5310300588607788
-0.16379357874393463 2.821746826171875 1.5310837030410767
-0.16379357874393463 2.821746826171875 1.5310837030410767
-0.16379833221435547 2.8217220306396484 1.5310944318771362
-0.16378620266914368 2.821812391281128 1.531054139137268
-0.16375836730003357 2.822037696838379 1.5309537649154663
-0.1637476235628128 2.8221139907836914 1.5309199094772339
-0.1637699156999588 2.8219707012176514 1.530983328819275
-0.1637735664844513 2.8219478130340576 1.530993103981018
-0.1637735664844513 2.8219478130340576 1.530993103981018
-0.16377083957195282 2.8219690322875977 1.5309836864471436
-0.16377568244934082 2.821937084197998 1.5309977531433105
-0.1636972576379776 2.822481632232666 1.5307599306106567
-0.16369304060935974 2.8225090503692627 1.530747652053833
-0.16369029879570007 2.8225290775299072 1.5307385921478271
-0.16369347274303436 2.8225111961364746 1.5307466983795166
-0.1636897474527359 2.8225395679473877 1.5307340621948242
-0.16374121606349945 2.8221898078918457 1.5308860540390015
-0.16373050212860107 2.8222782611846924 1.530847191810608
-0.16375717520713806 2.822103261947632 1.530923843383789
-0.16375628113746643 2.822113275527954 1.5309194326400757
-0.16373156011104584 2.8222854137420654 1.530843734741211
-0.1637507975101471 2.822160482406616 1.5308983325958252
-0.16374467313289642 2.822204351425171 1.530879020690918
-0.1637258380651474 2.822340965270996 1.530819058418274
-0.1637403666973114 2.8222644329071045 1.530852198600769
-0.16371795535087585 2.8224332332611084 1.5307782888412476
-0.16373524069786072 2.8223209381103516 1.5308274030685425
-0.16372935473918915 2.822388172149658 1.5307977199554443
-0.16372118890285492 2.8224878311157227 1.5307540893554688
-1.3551584482192993 -8.189576148986816 6.761474132537842
-1.3543741703033447 -8.18216609954834 6.757905960083008
-1.354276180267334 -8.181266784667969 6.757464408874512
-1.35456383228302 -8.183995246887207 6.758771896362305
-1.354468822479248 -8.183116912841797 6.75834321975708
-1.3543421030044556 -8.181938171386719 6.757768154144287
-1.354166030883789 -8.18027400970459 6.756958961486816
-1.3543403148651123 -8.181937217712402 6.757761478424072
-1.3544806241989136 -8.183295249938965 6.758406162261963
-1.3545562028884888 -8.184026718139648 6.758751392364502
-1.3542931079864502 -8.18155574798584 6.757556438446045
-1.3537627458572388 -8.176547050476074 6.755159854888916
-1.3542206287384033 -8.180879592895508 6.757217884063721
-1.3544180393218994 -8.18276596069336 6.758129119873047
-1.3544180393218994 -8.18276596069336 6.758129119873047
-1.354291319847107 -8.181604385375977 6.75754976272583
-1.354586124420166 -8.184419631958008 6.758903503417969
-1.3544600009918213 -8.18322467803955 6.75832986831665
-1.35458242893219 -8.184396743774414 6.758889198303223
-1.3542768955230713 -8.181506156921387 6.757485866546631
-1.3546829223632812 -8.185383796691895 6.759352684020996
-1.354641079902649 -8.1850004196167 6.759161949157715
-1.35451340675354 -8.18380069732666 6.758583068847656
-1.3545761108398438 -8.184422492980957 6.758870601654053
-1.3542418479919434 -8.181264877319336 6.757349967956543
-1.3545366525650024 -8.184124946594238 6.758697032928467
-1.354867696762085 -8.18735122680664 6.760225772857666
-1.3547509908676147 -8.18631362915039 6.759706974029541
-1.3545968532562256 -8.18491268157959 6.759001731872559
-1.3548932075500488 -8.187737464904785 6.760363578796387
-1.3548928499221802 -8.187836647033691 6.760379314422607
-1.354369044303894 -8.18291187286377 6.757997512817383
-1.3549396991729736 -8.188338279724121 6.760605335235596
-1.354413390159607 -8.183361053466797 6.758206367492676
-1.3551297187805176 -8.19017505645752 6.761477470397949
-1.3550279140472412 -8.189209938049316 6.761011600494385
-1.3549998998641968 -8.188965797424316 6.7608866691589355
-1.355086088180542 -8.189797401428223 6.761282920837402
-1.3549944162368774 -8.18893051147461 6.7608642578125
-1.3552135229110718 -8.19101333618164 6.761865615844727
-1.3550714254379272 -8.189666748046875 6.7612175941467285
-1.3543936014175415 -8.1832275390625 6.758124351501465
-1.3546274900436401 -8.185468673706055 6.759195804595947
-1.3544646501541138 -8.18394660949707 6.758456707000732
-1.3544646501541138 -8.18394660949707 6.758456707000732
-1.3548036813735962 -8.187174797058105 6.75999641418457
-1.3551595211029053 -8.190590858459473 6.7616353034973145
-1.355185866355896 -8.1908540725708 6.761758804321289
-1.3542487621307373 -8.181965827941895 6.757506847381592
-1.3545632362365723 -8.184940338134766 6.758915901184082
-1.354446291923523 -8.183828353881836 6.75838041305542
-1.3542720079421997 -8.1821928024292 6.757615089416504
-1.3546665906906128 -8.185970306396484 6.759397506713867
-1.3552305698394775 -8.191343307495117 6.761975288391113
-1.3546019792556763 -8.185371398925781 6.759103775024414
-1.3546963930130005 -8.186287879943848 6.759540557861328
-1.3549528121948242 -8.188740730285645 6.7607011795043945
-1.3546746969223022 -8.186118125915527 6.759445667266846
-1.3553688526153564 -8.192718505859375 6.7626166343688965
-1.355287790298462 -8.19195556640625 6.762247085571289
-1.3551923036575317 -8.19105052947998 6.761813640594482
-1.3546645641326904 -8.18603229522705 6.759401798248291
-1.3533735275268555 -8.173784255981445 6.7535400390625
-1.353471040725708 -8.174731254577637 6.753990650177002
-1.3534032106399536 -8.174090385437012 6.753679275512695
-1.3536187410354614 -8.1761474609375 6.754668712615967
-1.35525381565094 -8.191673278808594 6.762100696563721
-1.354576826095581 -8.185242652893066 6.759008884429932
-1.3536087274551392 -8.176064491271973 6.7546257972717285
-1.353582739830017 -8.175826072692871 6.754507541656494
-1.353582739830017 -8.175826072692871 6.754507541656494
-1.3536319732666016 -8.176297187805176 6.754734516143799
-1.354610800743103 -8.185578346252441 6.759167194366455
-1.3552786111831665 -8.191937446594238 6.762219429016113
-1.3534165620803833 -8.1742525100708 6.753744125366211
-1.3534165620803833 -8.1742525100708 6.753744125366211
-1.3552849292755127 -8.1920804977417 6.762263774871826
-1.3548190593719482 -8.187649726867676 6.760135173797607
-1.3547561168670654 -8.187060356140137 6.7598490715026855
-1.3552881479263306 -8.192148208618164 6.762283802032471
-1.3554199934005737 -8.1934175491333 6.7628912925720215
-1.354223608970642 -8.182064056396484 6.757431983947754
-1.3546916246414185 -8.1865234375 6.7595672607421875
-1.3549058437347412 -8.188603401184082 6.76055383682251
-1.3547784090042114 -8.187397956848145 6.759974956512451
-1.3554941415786743 -8.194220542907715 6.763248443603516
-1.3545947074890137 -8.185665130615234 6.7591376304626465
-1.3554092645645142 -8.193418502807617 6.762862682342529
-1.3554565906524658 -8.193877220153809 6.763078689575195
-1.3549792766571045 -8.189351081848145 6.760897636413574
-1.3550684452056885 -8.190205574035645 6.761309623718262
-1.3554089069366455 -8.193530082702637 6.762885093688965
-1.3555169105529785 -8.194602966308594 6.763387203216553
-1.3553129434585571 -8.192766189575195 6.762463092803955
-1.3555551767349243 -8.195087432861328 6.763587951660156
-1.3557639122009277 -8.197237968444824 6.764577388763428
-1.3556418418884277 -8.196083068847656 6.764017581939697
-1.3556652069091797 -8.19631576538086 6.764127731323242
-1.3557122945785522 -8.196778297424316 6.764347553253174
-1.355690360069275 -8.196571350097656 6.764248371124268
-1.355797290802002 -8.197609901428223 6.76474142074585
-1.355252981185913 -8.192435264587402 6.762253761291504
-1.3558259010314941 -8.198019027709961 6.764901638031006
-1.3558353185653687 -8.198260307312012 6.764979362487793
-1.3559632301330566 -8.19948673248291 6.765566349029541
-1.3558577299118042 -8.198500633239746 6.765087127685547
-1.3558577299118042 -8.198500633239746 6.765087127685547
-1.3556952476501465 -8.197179794311523 6.764384746551514
0.10491528362035751 -5.120299339294434 5.623973369598389
0.10493640601634979 -5.120146751403809 5.62385892868042
0.10498657077550888 -5.115965843200684 5.621106147766113
0.10496294498443604 -5.119342803955078 5.623318195343018
0.10499361157417297 -5.116303443908691 5.621320724487305
0.10500863194465637 -5.114984035491943 5.620452404022217
0.10503212362527847 -5.112595558166504 5.618880748748779
0.10499761253595352 -5.116471767425537 5.621427536010742
0.10501296073198318 -5.1154584884643555 5.620757579803467
0.1050606220960617 -5.113565444946289 5.61949348449707
0.1050618514418602 -5.114303112030029 5.619972229003906
0.10508986562490463 -5.111724376678467 5.6182756423950195
0.10507123917341232 -5.115122318267822 5.62049674987793
0.10512850433588028 -5.111514568328857 5.618111610412598
0.10512016713619232 -5.112740993499756 5.618916034698486
0.10512016713619232 -5.112740993499756 5.618916034698486
0.10512422770261765 -5.1125664710998535 5.618800163269043
0.10514786839485168 -5.110391139984131 5.617367267608643
0.10512717068195343 -5.113569736480713 5.619450569152832
0.10515714436769485 -5.111570358276367 5.618128776550293
0.10515708476305008 -5.112661838531494 5.618839263916016
0.10518557578325272 -5.1102614402771 5.617258071899414
0.10516618192195892 -5.112332820892334 5.618618965148926
0.10521011799573898 -5.109833717346191 5.616967678070068
0.10522638261318207 -5.1087188720703125 5.616224765777588
0.1052352711558342 -5.108530521392822 5.6160969734191895
0.10524013638496399 -5.109371662139893 5.616641521453857
0.10526038706302643 -5.1077680587768555 5.6155829429626465
0.1052636131644249 -5.108702182769775 5.616189479827881
0.10526666045188904 -5.108407974243164 5.615995407104492
0.10527981072664261 -5.107560157775879 5.615434646606445
0.10526198148727417 -5.1094489097595215 5.6166768074035645
0.1052718237042427 -5.108729839324951 5.616201877593994
0.10524977743625641 -5.111435890197754 5.617978096008301
0.10525690019130707 -5.110898494720459 5.617623805999756
0.1053047925233841 -5.1060261726379395 5.6144185066223145
0.10527170449495316 -5.110180854797363 5.6171464920043945
0.10531656444072723 -5.105804920196533 5.614267349243164
0.10527832806110382 -5.109787940979004 5.616886615753174
0.1053253710269928 -5.105235576629639 5.613889217376709
0.10532018542289734 -5.10626220703125 5.614562034606934
0.10530301928520203 -5.108080863952637 5.615758895874023
0.10533478856086731 -5.1053385734558105 5.613949298858643
0.10532509535551071 -5.106656074523926 5.614815711975098
0.10534999519586563 -5.104257106781006 5.613235950469971
0.1053256094455719 -5.1069183349609375 5.614985942840576
0.10532809048891068 -5.107583999633789 5.615417957305908
0.10531768202781677 -5.108702182769775 5.616152763366699
0.1053340882062912 -5.107141494750977 5.61512565612793
0.1053159087896347 -5.109030246734619 5.616367816925049
0.10534137487411499 -5.106503963470459 5.614705562591553
0.10535341501235962 -5.105347156524658 5.613943576812744
0.10538960993289948 -5.101534366607666 5.6114325523376465
0.10532344877719879 -5.1089630126953125 5.616318702697754
0.10535208880901337 -5.106520175933838 5.61470890045166
0.10538247972726822 -5.10326623916626 5.612566947937012
0.10538472980260849 -5.103082180023193 5.6124444007873535
0.1053643599152565 -5.105457305908203 5.61400842666626
0.1053643599152565 -5.105457305908203 5.61400842666626
0.10538949817419052 -5.10296106338501 5.612361431121826
0.10540452599525452 -5.1014933586120605 5.611395835876465
0.10536119341850281 -5.106359481811523 5.614598274230957
0.1053517609834671 -5.108660697937012 5.616102695465088
0.10536016523838043 -5.107906818389893 5.615606307983398
0.10539189726114273 -5.104884624481201 5.613616943359375
0.10537209361791611 -5.1072306632995605 5.615158557891846
0.10539472848176956 -5.105219841003418 5.613833904266357
0.10537887364625931 -5.107643127441406 5.61542272567749
0.10542120039463043 -5.103806018829346 5.612894058227539
0.10542000085115433 -5.104316711425781 5.6132283210754395
0.10534678399562836 -5.111598968505859 5.61801815032959
0.10542678087949753 -5.104187965393066 5.613139629364014
0.10541000217199326 -5.105914115905762 5.614274978637695
0.1054193377494812 -5.10511589050293 5.6137495040893555
0.10542526841163635 -5.104759693145752 5.613512992858887
0.10544610768556595 -5.1026177406311035 5.61210298538208
0.10540430247783661 -5.106950283050537 5.614954471588135
0.10544092953205109 -5.103577613830566 5.612732887268066
0.10544884949922562 -5.102726936340332 5.612173557281494
0.10544884949922562 -5.102726936340332 5.612173557281494
0.10544782131910324 -5.103111267089844 5.612422466278076
0.10542874783277512 -5.105531215667725 5.614013671875
0.10537409037351608 -5.111133575439453 5.617697238922119
0.1054493859410286 -5.1037187576293945 5.612819194793701
0.10546639561653137 -5.102304935455322 5.611886501312256
0.10545630007982254 -5.1035943031311035 5.612732887268066
0.10546526312828064 -5.103496551513672 5.612663269042969
0.10545775294303894 -5.10430908203125 5.6131978034973145
0.10546822845935822 -5.103884220123291 5.612914085388184
0.1054672971367836 -5.1040167808532715 5.613001346588135
0.10547243803739548 -5.103495121002197 5.61265754699707
0.10547161847352982 -5.10414981842041 5.6130852699279785
0.10547202080488205 -5.104330062866211 5.613202095031738
0.10543975979089737 -5.107756614685059 5.615453243255615
0.10549071431159973 -5.103217124938965 5.612464427947998
0.10550055652856827 -5.103410720825195 5.612583160400391
0.10547588765621185 -5.106891632080078 5.614866733551025
0.10553355515003204 -5.103926181793213 5.612898349761963
0.10553355515003204 -5.103926181793213 5.612898349761963
0.10552024096250534 -5.105319976806641 5.613814353942871
0.1055046021938324 -5.1078572273254395 5.615477085113525
0.10551705211400986 -5.107574462890625 5.6152849197387695
0.10555824637413025 -5.104524612426758 5.613271236419678
0.1055593341588974 -5.1045918464660645 5.613314628601074
0.10559176653623581 -5.101354598999023 5.6111836433410645
0.10559763759374619 -5.1010847091674805 5.611003875732422
0.10560040175914764 -5.101284027099609 5.6111321449279785
0.10557807981967926 -5.103557109832764 5.61262845993042
0.10558867454528809 -5.102541923522949 5.611959934234619
0.10557275265455246 -5.104231357574463 5.613070964813232
0.10561591386795044 -5.101536750793457 5.6112871170043945
0.1056218221783638 -5.100481986999512 5.610599994659424
0.10562718659639359 -5.101994514465332 5.611577987670898
0.10566259175539017 -5.100669860839844 5.610691547393799
0.10568298399448395 -5.099251747131348 5.609752655029297
0.10568298399448395 -5.099251747131348 5.609752655029297
0.10562441498041153 -5.105483055114746 5.6138505935668945
0.1056644394993782 -5.101799964904785 5.61142635345459
0.10566426068544388 -5.101812362670898 5.611433982849121
0.10568472743034363 -5.09990930557251 5.610180377960205
0.10568658262491226 -5.100197792053223 5.610368251800537
0.10568265616893768 -5.100630760192871 5.610652923583984
0.10566945374011993 -5.102105140686035 5.611621856689453
0.10564235597848892 -5.10480260848999 5.613396167755127
0.10563847422599792 -5.1056904792785645 5.613975524902344
0.1057000607252121 -5.100268363952637 5.610404968261719
0.10571282356977463 -5.099761486053467 5.610068321228027
0.1057252362370491 -5.099416255950928 5.60983419418335
0.1057252362370491 -5.099416255950928 5.60983419418335
0.10572672635316849 -5.099493503570557 5.609882354736328
0.10567697137594223 -5.104457378387451 5.613148212432861
0.3053806722164154 1.50372314453125 1.3073276281356812
0.3053869307041168 1.5037769079208374 1.3072901964187622
0.3053869605064392 1.5037767887115479 1.3072901964187622
0.3053722083568573 1.503624677658081 1.3073952198028564
0.305372416973114 1.5036265850067139 1.3073936700820923
0.3053719699382782 1.5036218166351318 1.3073970079421997
0.30539217591285706 1.5038129091262817 1.3072632551193237
0.30539050698280334 1.503793478012085 1.3072761297225952
-2.500178337097168 -1.0512349605560303 5.695123195648193
-2.5015153884887695 -1.0514451265335083 5.696761608123779
-2.499379873275757 -1.050870656967163 5.694558620452881
-2.4988458156585693 -1.051348090171814 5.693697929382324
-2.499000072479248 -1.0514814853668213 5.694164276123047
-2.498896360397339 -1.0514463186264038 5.694085121154785
-2.4984400272369385 -1.051243782043457 5.692742824554443
0.0 0.0 0.0
0.0 0.0 0.0
0.0 0.0 0.0
0.0 0.0 0.0
0.0 0.0 0.0
0.0 0.0 0.0
0.0 0.0 0.0
0.0 0.0 0.0
0.0 0.0 0.0
0.0 0.0 0.0
0.0 0.0 0.0
0.0 0.0 0.0
0.0 0.0 0.0
0.0 0.0 0.0
0.0 0.0 0.0
0.0 0.0 0.0
0.0 0.0 0.0
0.0 0.0 0.0
-0.17588426172733307 -0.04308782145380974 0.2828848659992218
-0.17588092386722565 -0.043089233338832855 0.2828793227672577
-0.17587696015834808 -0.04309113323688507 0.28287166357040405
-0.1758774369955063 -0.04309029132127762 0.28287434577941895
-0.17587058246135712 -0.043098609894514084 0.28284692764282227
-0.1758752316236496 -0.04309285432100296 0.2828657627105713
-0.17587636411190033 -0.04309060052037239 0.2828725576400757
-0.17587557435035706 -0.043091170489788055 0.28287070989608765
-0.1758745312690735 -0.04309193417429924 0.2828678786754608
-0.17587527632713318 -0.04309017211198807 0.2828734815120697
-0.1758715659379959 -0.043093521147966385 0.2828614115715027
-0.17586851119995117 -0.043095316737890244 0.2828541696071625
-0.17585453391075134 -0.043108996003866196 0.28280773758888245
-0.17585453391075134 -0.043108996003866196 0.28280773758888245
-0.17585566639900208 -0.04310773313045502 0.28281229734420776
-0.175859272480011 -0.04310259595513344 0.2828282117843628
-0.17586088180541992 -0.04310060292482376 0.28283485770225525
-0.17585167288780212 -0.04311129078269005 0.2827991545200348
-0.17585167288780212 -0.04311129078269005 0.2827991545200348
-0.17586363852024078 -0.043095663189888 0.28285112977027893
-0.17586180567741394 -0.043095920234918594 0.2828487157821655
-0.17586307227611542 -0.04309302940964699 0.2828581929206848
-0.17585794627666473 -0.04309845343232155 0.28283998370170593
-0.17586594820022583 -0.043088484555482864 0.28287291526794434
-0.1758607029914856 -0.043093740940093994 0.28285476565361023
-0.17585818469524384 -0.04309571161866188 0.2828475832939148
-0.1758607029914856 -0.04309187829494476 0.28286007046699524
-0.17585422098636627 -0.0430995412170887 0.2828347682952881
-0.17585422098636627 -0.0430995412170887 0.2828347682952881
-0.17585840821266174 -0.043094340711832047 0.2828519344329834
-0.17585957050323486 -0.04309271275997162 0.2828570306301117
-0.17585863173007965 -0.043090786784887314 0.28286197781562805
-0.17585834860801697 -0.0430898517370224 0.2828643321990967
-0.17584548890590668 -0.043082933872938156 0.28287655115127563
-0.17584548890590668 -0.043082933872938156 0.28287655115127563
-1.8231467008590698 0.9108909368515015 6.876739978790283
-1.8231467008590698 0.9108909368515015 6.876739978790283
-1.8282060623168945 0.9139757752418518 6.898115634918213
-1.8296138048171997 0.914817214012146 6.904030799865723
-1.8296138048171997 0.914817214012146 6.904030799865723
-1.8295671939849854 0.9148002862930298 6.903879165649414
-1.8295671939849854 0.9148002862930298 6.903879165649414
-1.8294228315353394 0.9147205352783203 6.90330171585083
-1.8294228315353394 0.9147205352783203 6.90330171585083
-1.8298208713531494 0.9149466753005981 6.904913902282715
-1.8295254707336426 0.9147830009460449 6.903733730316162
-1.8285387754440308 0.9142932295799255 6.8999552726745605
-1.8274141550064087 0.9136863350868225 6.895497798919678
-1.821042537689209 0.910321831703186 6.87074089050293
-1.8274341821670532 0.9139763712882996 6.896630764007568
-1.827072024345398 0.9137717485427856 6.895177841186523
1.3524434566497803 -0.9585922360420227 -2.598339796066284
1.3523979187011719 -0.9585686922073364 -2.598259449005127
1.3521530628204346 -0.958416759967804 -2.597783327102661
1.3521316051483154 -0.9584519863128662 -2.5978267192840576
1.3521326780319214 -0.9584528207778931 -2.597831964492798
1.3518638610839844 -0.9582555890083313 -2.597275733947754
1.352018117904663 -0.95839524269104 -2.597616672515869
1.3522275686264038 -0.9585323929786682 -2.598041534423828
1.3516771793365479 -0.9581712484359741 -2.596952438354492
1.3516771793365479 -0.9581712484359741 -2.596952438354492
1.3520344495773315 -0.9584324359893799 -2.5976948738098145
1.3521158695220947 -0.9584909081459045 -2.597867012023926
1.3516390323638916 -0.9581691026687622 -2.5969107151031494
1.351943016052246 -0.9583891034126282 -2.5975494384765625
1.3521020412445068 -0.9584991335868835 -2.5978798866271973
1.35182523727417 -0.9583568572998047 -2.5973780155181885
1.3517181873321533 -0.9583138823509216 -2.597209930419922
1.3519052267074585 -0.9584267735481262 -2.597581624984741
1.3515783548355103 -0.9581992030143738 -2.5969326496124268
1.3517354726791382 -0.9583561420440674 -2.5972952842712402
1.3531303405761719 -0.9591487050056458 -2.6000120639801025
1.35165274143219 -0.958348274230957 -2.5972347259521484
1.3513405323028564 -0.9581286907196045 -2.59660005569458
1.3517967462539673 -0.9584577083587646 -2.597553253173828
1.3514572381973267 -0.958294153213501 -2.5969645977020264
1.3513431549072266 -0.9582146406173706 -2.5967512130737305
1.3514702320098877 -0.9583255052566528 -2.5970499515533447
1.3516534566879272 -0.9584563374519348 -2.597414493560791
1.3515713214874268 -0.9584094285964966 -2.597289562225342
1.3515335321426392 -0.9583939909934998 -2.597231149673462
1.3516138792037964 -0.9584735631942749 -2.5974433422088623
1.3513548374176025 -0.9583669900894165 -2.597050189971924
1.3514072895050049 -0.9584521055221558 -2.597252368927002
1.350720763206482 -0.9580237865447998 -2.595961570739746
1.3511569499969482 -0.9583367109298706 -2.5968525409698486
1.3506289720535278 -0.9579753875732422 -2.5958313941955566
1.351273536682129 -0.9584396481513977 -2.59712290763855
1.3505233526229858 -0.9579213261604309 -2.595703363418579
1.350675106048584 -0.958049476146698 -2.5959997177124023
1.3505281209945679 -0.9579498767852783 -2.5957462787628174
1.3505281209945679 -0.9579498767852783 -2.5957462787628174
1.3505549430847168 -0.95799320936203 -2.5958240032196045
1.3502616882324219 -0.9577757120132446 -2.5952486991882324
1.3505922555923462 -0.958023726940155 -2.5959014892578125
1.35050368309021 -0.9579479694366455 -2.595736503601074
1.3506388664245605 -0.9580792188644409 -2.5960450172424316
1.3505561351776123 -0.9580236077308655 -2.5958869457244873
1.3505629301071167 -0.9580380916595459 -2.5959177017211914
1.3504705429077148 -0.9580011963844299 -2.59578800201416
1.3504524230957031 -0.9579901099205017 -2.595754623413086
1.3505414724349976 -0.9580451250076294 -2.5959346294403076
1.3506066799163818 -0.9581008553504944 -2.5960705280303955
1.3504528999328613 -0.957998514175415 -2.5957741737365723
1.3504271507263184 -0.9579878449440002 -2.5957400798797607
1.3504271507263184 -0.9579878449440002 -2.5957400798797607
1.3506426811218262 -0.958138644695282 -2.596163034439087
1.3508411645889282 -0.9582955241203308 -2.596588611602783
1.350528597831726 -0.958082914352417 -2.59599232673645
1.3496425151824951 -0.9575319290161133 -2.5943541526794434
1.3504528999328613 -0.9580729603767395 -2.59592866897583
1.3504798412322998 -0.9580937027931213 -2.595982074737549
1.350906252861023 -0.9583976864814758 -2.5968189239501953
1.3506566286087036 -0.9582400918006897 -2.5963621139526367
1.3503546714782715 -0.9580215215682983 -2.5957834720611572
1.3503823280334473 -0.9580492973327637 -2.5958521366119385
1.3503823280334473 -0.9580492973327637 -2.5958521366119385
1.3503823280334473 -0.9580492973327637 -2.5958521366119385
1.3502507209777832 -0.9579786658287048 -2.595637559890747
1.3507124185562134 -0.9583024978637695 -2.5965285301208496
1.350670337677002 -0.9582737684249878 -2.596447706222534
1.3507283926010132 -0.9583216309547424 -2.596566677093506
1.350261926651001 -0.9579914808273315 -2.5956737995147705
1.350237250328064 -0.9579792618751526 -2.5956296920776367
1.3502846956253052 -0.9580099582672119 -2.5957212448120117
1.3503345251083374 -0.9580566883087158 -2.5958411693573
1.3503749370574951 -0.9580865502357483 -2.595919132232666
1.3503749370574951 -0.9580865502357483 -2.595919132232666
1.3504565954208374 -0.9581618309020996 -2.596094846725464
1.350293755531311 -0.9580296874046326 -2.5957696437835693
1.3506864309310913 -0.9583315849304199 -2.5965585708618164
1.350226879119873 -0.958000659942627 -2.595674514770508
1.350260853767395 -0.9580299854278564 -2.595750331878662
1.3501501083374023 -0.9579623937606812 -2.5955591201782227
1.350182056427002 -0.9579857587814331 -2.5956265926361084
1.3501518964767456 -0.9579721093177795 -2.5955801010131836
1.3502336740493774 -0.9580304622650146 -2.595747232437134
1.3501390218734741 -0.9579713344573975 -2.595576763153076
1.3505464792251587 -0.9582716226577759 -2.5963637828826904
1.3501594066619873 -0.9579929113388062 -2.5956318378448486
1.3502404689788818 -0.9580530524253845 -2.5957865715026855
1.3502534627914429 -0.9580734968185425 -2.5958285331726074
1.3501670360565186 -0.9580046534538269 -2.595667600631714
1.3501670360565186 -0.9580046534538269 -2.595667600631714
1.3500431776046753 -0.9579422473907471 -2.595475435256958
1.349735975265503 -0.9577207565307617 -2.5948872566223145
1.3500711917877197 -0.957974910736084 -2.595555543899536
1.3501873016357422 -0.9580601453781128 -2.595782995223999
1.35011625289917 -0.9580031037330627 -2.595649003982544
1.3500924110412598 -0.9580134153366089 -2.5956366062164307
1.3501574993133545 -0.9580695033073425 -2.5957906246185303
1.3500781059265137 -0.9580051898956299 -2.595632791519165
1.3504801988601685 -0.95830899477005 -2.596410036087036
1.3504801988601685 -0.95830899477005 -2.596410036087036
1.3500958681106567 -0.9580289721488953 -2.595684766769409
1.350040316581726 -0.9580497145652771 -2.5957040786743164
1.350040316581726 -0.9580497145652771 -2.5957040786743164
1.3501207828521729 -0.9582945108413696 -2.596233606338501
1.3502060174942017 -0.9583652019500732 -2.596397638320923
1.3499927520751953 -0.9582247734069824 -2.596034049987793
1.3499927520751953 -0.9582247734069824 -2.596034049987793
1.349975347518921 -0.9582310318946838 -2.5960419178009033
1.3497823476791382 -0.9581044912338257 -2.5957088470458984
1.3499447107315063 -0.9582271575927734 -2.596022844314575
1.3499560356140137 -0.9582459330558777 -2.5960566997528076
1.3499350547790527 -0.9582364559173584 -2.5960283279418945
1.3499350547790527 -0.9582364559173584 -2.5960283279418945
1.3499640226364136 -0.9582557678222656 -2.596088171005249
1.3498910665512085 -0.958206832408905 -2.59597110748291
1.349867820739746 -0.9582014679908752 -2.5959527492523193
1.349770426750183 -0.9581653475761414 -2.5958433151245117
1.3498109579086304 -0.9582113027572632 -2.5959484577178955
1.3496630191802979 -0.9581055045127869 -2.5956997871398926
1.349782943725586 -0.9582072496414185 -2.595930337905884
1.3494970798492432 -0.9579715132713318 -2.5954036712646484
1.3495335578918457 -0.9580080509185791 -2.5955100059509277
1.349711537361145 -0.9581905007362366 -2.5958778858184814
1.3497402667999268 -0.9582144618034363 -2.5959343910217285
1.3495995998382568 -0.958122193813324 -2.5957109928131104
1.3497222661972046 -0.958214521408081 -2.595928430557251
1.3493913412094116 -0.9579480886459351 -2.595334529876709
1.3493605852127075 -0.9579290747642517 -2.5952823162078857
1.3497331142425537 -0.9582440257072449 -2.59600567817688
1.3499157428741455 -0.95838463306427 -2.5963521003723145
1.3497254848480225 -0.9582549929618835 -2.5960161685943604
1.34977388381958 -0.9582921266555786 -2.5961084365844727
1.3495090007781982 -0.9581016302108765 -2.595651388168335
1.3495392799377441 -0.9581316113471985 -2.5957131385803223
1.3497741222381592 -0.9583146572113037 -2.5961456298828125
1.3494389057159424 -0.9580512642860413 -2.595533847808838
1.3501094579696655 -0.958586573600769 -2.596778631210327
1.3497110605239868 -0.9582940340042114 -2.5960774421691895
-0.9530919194221497 -0.4702611267566681 2.6167633533477783
-0.9531438946723938 -0.4702106714248657 2.616931676864624
-0.9531814455986023 -0.47017204761505127 2.6170852184295654
-0.9529449939727783 -0.4703182876110077 2.6168041229248047
-0.9530420899391174 -0.4701823592185974 2.617144823074341
-0.9529431462287903 -0.4702841639518738 2.616926670074463
-0.9528560638427734 -0.4702446162700653 2.617103099822998
-0.9527696967124939 -0.4703175723552704 2.6168978214263916
-0.9527113437652588 -0.4703858494758606 2.616767406463623
-0.9528836011886597 -0.4701947271823883 2.6172373294830322
-0.9529788494110107 -0.4701162874698639 2.617471218109131
-0.9528160691261292 -0.470255583524704 2.617095470428467
-0.9525381326675415 -0.47052857279777527 2.616499185562134
-0.9526838660240173 -0.47036364674568176 2.6168551445007324
-0.9524949193000793 -0.470569372177124 2.616428852081299
-0.9525195956230164 -0.470537930727005 2.616483211517334
-0.9525349736213684 -0.4705224931240082 2.616520881652832
-0.9524905681610107 -0.4705530107021332 2.6164395809173584
-0.952724039554596 -0.47029605507850647 2.61702036857605
-0.9527246952056885 -0.4702876806259155 2.6170473098754883
-0.952586829662323 -0.4704071581363678 2.616777181625366
-0.9528762102127075 -0.4701301157474518 2.617497444152832
-0.9528762102127075 -0.4701301157474518 2.617497444152832
-0.9529486298561096 -0.47007179260253906 2.617676258087158
-0.9528180956840515 -0.4701763093471527 2.617370128631592
-0.9525818228721619 -0.4703919589519501 2.6168227195739746
-0.9527707099914551 -0.47021484375 2.6172826290130615
-0.9527298212051392 -0.4702463746070862 2.61720609664917
-0.9527087807655334 -0.470255970954895 2.617182493209839
-0.9527277946472168 -0.4702112674713135 2.617360830307007
-0.9528605341911316 -0.47004464268684387 2.6178598403930664
-0.9531695246696472 -0.4697398841381073 2.618797779083252
-0.9525917768478394 -0.4702102839946747 2.617487907409668
-0.9526889324188232 -0.470095157623291 2.6178359985351562
-0.9527108669281006 -0.4700694680213928 2.6179311275482178
-0.9526883959770203 -0.47008809447288513 2.617889642715454
-0.6844367384910583 -0.5196360349655151 1.5319013595581055
-0.6843406558036804 -0.5198361277580261 1.5326671600341797
-0.684194803237915 -0.5196341872215271 1.5320550203323364
-0.6841973066329956 -0.5196381211280823 1.532065510749817
-0.6842669248580933 -0.5198087692260742 1.5325677394866943
-0.6841310262680054 -0.5197188854217529 1.5323021411895752
-0.6841310262680054 -0.5197188854217529 1.5323021411895752
-0.6838730573654175 -0.5195362567901611 1.532381534576416
0.0 0.0 0.0
0.0 0.0 0.0
0.0 0.0 0.0
0.0 0.0 0.0
0.0 0.0 0.0
0.0 0.0 0.0
0.0 0.0 0.0
-1.1974425315856934 -0.7442470192909241 2.5576958656311035
-1.1974425315856934 -0.7442470192909241 2.5576958656311035
